!x y z r th V Ex Ey Ez Er Et
704.0 78.0 -0.7 708.307842678591 6.322325896937 -5518.11092122138 -4451.05561007546 -501.385718072128 1223.1778414813 -4479.19823039769 -8.17894083310437
704.0 78.0 -0.5 708.307842678591 6.322325896937 -5751.28369619882 -4427.50480369858 -499.985898602931 914.751010177949 -4455.63650680472 -9.3810876113508
704.0 78.0 -0.3 708.307842678591 6.322325896937 -5876.29662091533 -4408.93880119408 -493.238593677694 605.556885096821 -4436.44039640177 -4.71933706581245
704.0 78.0 -0.0999999999999996 708.307842678591 6.322325896937 -5992.17529681282 -4393.28584673682 -500.121516344945 306.732269168861 -4421.6405998469 -13.2841271752491
704.0 78.0 0.100000000000001 708.307842678591 6.322325896937 -6030.74914327358 -4384.27278610969 -500.26127298929 10.5744785931078 -4412.69774579168 -14.4155665837205
704.0 78.0 0.300000000000001 708.307842678591 6.322325896937 -5997.21814285794 -4376.27189066008 -494.250515397856 -282.929477354471 -4404.08359651785 -9.32243718159814
704.0 78.0 0.5 708.307842678591 6.322325896937 -5939.98423807398 -4368.92345242737 -486.654067570857 -575.076989304038 -4395.94331753332 -2.58141188107434
704.0 78.0 0.7 708.307842678591 6.322325896937 -5775.19021798666 -4369.94900801862 -490.282201598743 -878.632441440825 -4397.36217177982 -6.07454420353645
704.0 78.0 0.9 708.307842678591 6.322325896937 -5574.90590198822 -4374.32385181501 -490.335257200096 -1191.37026683133 -4401.71625087332 -5.64551228484816
704.0 78.0 1.1 708.307842678591 6.322325896937 -5290.32521750084 -4380.74849340938 -487.400729213789 -1520.61485640866 -4407.77866362772 -2.02133986708655
704.0 78.0 1.3 708.307842678591 6.322325896937 -4941.3381904818 -4385.90050056994 -478.676279060061 -1843.63873795129 -4411.93858640636 7.2173965585916
704.0 78.0 1.5 708.307842678591 6.322325896937 -4491.60251366187 -4360.17101659404 -477.369353579864 -2158.42703435578 -4386.2216653038 5.68300127651914
704.0 78.0 1.7 708.307842678591 6.322325896937 -4069.10808381089 -4349.54288365367 -478.813029199948 -2478.02726799647 -4375.81715126682 3.07771880652736
704.0 78.0 1.9 708.307842678591 6.322325896937 -3552.72731899578 -4339.19089997773 -471.973903824035 -2800.49697217923 -4364.77499160696 8.73527233969925
704.0 78.0 2.1 708.307842678591 6.322325896937 -2950.10101238477 -4323.57645614253 -473.567161496803 -3155.05186314541 -4349.43096503173 5.43221697336758
704.0 78.0 2.3 708.307842678591 6.322325896937 -2267.46844271131 -4302.41008721048 -451.35569627684 -3507.00659315096 -4325.94736508681 25.177720122484
704.0 78.0 2.5 708.307842678591 6.322325896937 -1558.84792719353 -4261.68350048765 -417.302546849895 -3859.71240482212 -4281.71848490146 54.5388851119071
704.0 78.0 2.7 708.307842678591 6.322325896937 -730.572829900692 -4214.14744370558 -412.122067043092 -4196.63711908417 -4233.90105389374 54.4531107616164
704.0 78.0 2.9 708.307842678591 6.322325896937 119.933969577189 -4172.94588009169 -443.422885825008 -4532.57145846957 -4196.39696976736 18.8054772568577
704.0 78.0 3.1 708.307842678591 6.322325896937 1071.48534477664 -4126.28468494294 -481.932203742028 -4862.8572811312 -4154.26027045549 -24.6080375771688
704.0 78.0 3.3 708.307842678591 6.322325896937 2026.94953868716 -4078.28560958946 -482.864213191358 -5173.53206870089 -4106.65575405723 -30.8201141133547
704.0 78.0 3.5 708.307842678591 6.322325896937 3097.26659373024 -3997.30489255329 -472.328428420056 -5493.0566881141 -4025.00733437164 -29.2661336491355
704.0 78.0 3.7 708.307842678591 6.322325896937 4244.39445423059 -3811.53199660147 -422.225830366496 -5796.12816439858 -3834.84690795465 0.0741360658983457
704.0 78.0 3.9 708.307842678591 6.322325896937 5416.73700934187 -3739.4814987733 -405.710980406137 -6041.84403870796 -3761.41597067849 8.55422788414098
704.0 78.0 4.1 708.307842678591 6.322325896937 6640.67166065437 -3704.22586367211 -406.831572621595 -6183.32466835895 -3726.49815750717 3.55804367673104
704.0 78.0 4.3 708.307842678591 6.322325896937 7903.26747440682 -3479.47871129929 -379.245838959243 -6262.30224124512 -3500.08010474406 6.22648598293097
704.0 78.0 4.5 708.307842678591 6.322325896937 9107.43378883404 -3513.46401138484 -377.333355177934 -5985.59450975064 -3533.64810454958 11.869854230271
704.0 78.5 -4.5 708.363077806855 6.36252231595123 11254.3772894512 -5159.53753094802 -558.680881146489 6085.61886680181 -5189.67036274548 16.5343962993576
704.0 78.5 -4.3 708.363077806855 6.36252231595123 10007.428764088 -4683.85845063423 -484.206358437853 6554.45279835698 -4708.66798804741 37.8359811151064
704.0 78.5 -4.1 708.363077806855 6.36252231595123 8668.18989766267 -4644.9809938213 -490.476856821787 6717.77031190766 -4670.7248818703 27.2957490561158
704.0 78.5 -3.9 708.363077806855 6.36252231595123 7316.75019234917 -4554.45051957337 -482.266944471799 6621.18518177439 -4579.84220601241 25.4226080417943
704.0 78.5 -3.7 708.363077806855 6.36252231595123 6023.41118741264 -4401.44566818808 -480.389116829027 6359.12835925215 -4427.57167099363 10.3330437941397
704.0 78.5 -3.5 708.363077806855 6.36252231595123 4791.96072227523 -4441.7357721759 -507.374790486043 6006.16523895559 -4470.60413491577 -12.0215107946216
704.0 78.5 -3.3 708.363077806855 6.36252231595123 3609.79107467063 -4475.61720235421 -505.114157405697 5678.21908670053 -4504.02635565323 -6.02009980814889
704.0 78.5 -3.1 708.363077806855 6.36252231595123 2510.76589177882 -4474.66006007006 -489.604195804856 5304.574722627 -4501.3563122631 9.28826060394339
704.0 78.5 -2.9 708.363077806855 6.36252231595123 1526.33957541227 -4500.27502410849 -484.445826670605 4961.70875904762 -4526.24185931983 17.2534788999024
704.0 78.5 -2.7 708.363077806855 6.36252231595123 591.353801267744 -4522.20062461203 -488.766818852746 4634.60147984489 -4548.51125920108 15.3888717541033
704.0 78.5 -2.5 708.363077806855 6.36252231595123 -354.890180313506 -4540.6301507161 -494.191703248186 4309.75558287661 -4567.4284504299 12.0397406523441
704.0 78.5 -2.3 708.363077806855 6.36252231595123 -1166.60050081803 -4538.95416340966 -487.85931863199 3957.58324240767 -4565.06103842235 18.14739067222
704.0 78.5 -2.1 708.363077806855 6.36252231595123 -1928.12453704046 -4532.41566952417 -505.071019836352 3587.3987833093 -4560.47019898884 0.317114344173611
704.0 78.5 -1.9 708.363077806855 6.36252231595123 -2610.70014094452 -4520.48431245538 -510.70998948456 3223.95774319156 -4549.23723596699 -6.60934232184696
704.0 78.5 -1.7 708.363077806855 6.36252231595123 -3207.72433705774 -4504.60464847758 -505.108979397704 2868.44650096654 -4532.83468324196 -2.80259749935109
704.0 78.5 -1.5 708.363077806855 6.36252231595123 -3733.8329221338 -4476.49762105205 -503.836568050158 2543.72925402148 -4504.75977050099 -4.65281260131367
704.0 78.5 -1.3 708.363077806855 6.36252231595123 -4221.01933751699 -4465.64488249413 -497.793088113738 2235.66835512616 -4493.30414643754 0.150754954717085
704.0 78.5 -1.1 708.363077806855 6.36252231595123 -4655.27636538171 -4438.98869408305 -497.608998953519 1900.09873440252 -4466.79174308272 -2.62029859532543
704.0 78.5 -0.9 708.363077806855 6.36252231595123 -5029.52430096847 -4398.58551248002 -498.168403821129 1549.60921083611 -4426.69941267166 -7.6536930428094
704.0 78.5 -0.7 708.363077806855 6.36252231595123 -5277.64519536612 -4354.16337969775 -485.785804190253 1240.90407243425 -4381.17866694113 -0.270173375293793
704.0 78.5 -0.5 708.363077806855 6.36252231595123 -5529.8983423407 -4337.64287756251 -483.565441847233 915.05878558807 -4364.51386280752 0.105729435301893
704.0 78.5 -0.3 708.363077806855 6.36252231595123 -5633.99857430042 -4321.67586790011 -476.345707233554 620.015154794309 -4347.84511716077 5.51154889357638
704.0 78.5 -0.0999999999999996 708.363077806855 6.36252231595123 -5734.71600482967 -4305.94796704064 -471.453003684946 326.35245889949 -4331.67188652162 8.63116812555796
704.0 78.5 0.100000000000001 708.363077806855 6.36252231595123 -5775.75299117744 -4290.6427214779 -469.238159467276 30.45871760744 -4316.21546524518 9.13626016631158
704.0 78.5 0.300000000000001 708.363077806855 6.36252231595123 -5748.99802973057 -4272.80528610085 -468.161007740755 -268.966758060617 -4298.36852867825 8.23005276824312
704.0 78.5 0.5 708.363077806855 6.36252231595123 -5680.19806676116 -4264.84121575154 -470.003004627207 -576.111543609901 -4290.65764009378 5.51683211813056
704.0 78.5 0.7 708.363077806855 6.36252231595123 -5524.06888802054 -4277.02013584145 -470.598584573924 -893.080998920238 -4302.82754707961 6.27457480882897
704.0 78.5 0.9 708.363077806855 6.36252231595123 -5305.27029182401 -4277.57822532266 -467.693574220458 -1207.70920199651 -4303.06026909349 9.22353894679979
704.0 78.5 1.1 708.363077806855 6.36252231595123 -5033.98869398128 -4280.21020425333 -468.774909469289 -1526.82331196335 -4305.7958690209 8.44053699978043
704.0 78.5 1.3 708.363077806855 6.36252231595123 -4683.76984747262 -4280.67806071032 -472.35462082715 -1849.8333115706 -4306.65754336056 4.93472177328698
704.0 78.5 1.5 708.363077806855 6.36252231595123 -4292.32619282897 -4278.76510115293 -477.623744117877 -2175.00827077457 -4305.34028476915 -0.513939009367045
704.0 78.5 1.7 708.363077806855 6.36252231595123 -3798.27601367301 -4271.36336672474 -474.026259147651 -2498.40839494202 -4297.58547120007 2.24113579276391
704.0 78.5 1.9 708.363077806855 6.36252231595123 -3317.22950971082 -4275.95775074853 -463.544136387477 -2812.80091414832 -4300.98993960284 13.1678396421438
704.0 78.5 2.1 708.363077806855 6.36252231595123 -2722.01936416205 -4267.45579917308 -462.530811335325 -3155.67370770449 -4292.42805923989 13.2327465232087
704.0 78.5 2.3 708.363077806855 6.36252231595123 -2058.92525243183 -4250.07127547208 -473.967184893263 -3498.98804021659 -4276.41797949897 -0.0597194314952715
704.0 78.5 2.5 708.363077806855 6.36252231595123 -1335.47916797802 -4213.2452552613 -471.674544399116 -3853.49305346592 -4239.56471692069 -1.86221834578043
704.0 78.5 2.7 708.363077806855 6.36252231595123 -546.673210749106 -4165.87517040061 -467.106444095588 -4190.57658081259 -4191.98017070167 -2.57175426546251
704.0 78.5 2.9 708.363077806855 6.36252231595123 358.620867514396 -4085.06256244587 -467.004691057511 -4552.07812745827 -4111.65404220017 -11.4261903338407
704.0 78.5 3.1 708.363077806855 6.36252231595123 1310.87673791633 -4004.89513643573 -455.644228258544 -4847.22490847315 -4030.72144416251 -9.01976498209416
704.0 78.5 3.3 708.363077806855 6.36252231595123 2289.45666532514 -3923.94093568438 -447.061964075883 -5148.78600163735 -3949.31479427637 -9.46161575635572
704.0 78.5 3.5 708.363077806855 6.36252231595123 3342.32782015214 -3857.47192787607 -437.983877236645 -5454.2696475773 -3882.24917100728 -7.80546503559329
704.0 78.5 3.7 708.363077806855 6.36252231595123 4442.09318320838 -3801.752913437 -422.873121667212 -5748.96360738264 -3825.19879423945 1.03749909349148
704.0 78.5 3.9 708.363077806855 6.36252231595123 5640.82936718489 -3606.33271458853 -409.569912971199 -6001.94705451391 -3629.50801614138 -7.39747849753631
704.0 78.5 4.1 708.363077806855 6.36252231595123 6838.57365256319 -3603.23973518931 -413.211255224462 -6204.30448388326 -3626.83761703472 -11.3591528380792
704.0 78.5 4.3 708.363077806855 6.36252231595123 8077.38173479059 -3611.83108801853 -409.271164820265 -6207.61520893774 -3634.93941606243 -6.49124688746943
704.0 78.5 4.5 708.363077806855 6.36252231595123 9335.10547982923 -3706.54951003112 -410.7907796407 -6279.8556568133 -3729.24283326917 2.49508723106031
704.0 79.0 -4.5 708.418661527207 6.40271244698655 11547.2052625103 -5620.35135724846 -591.547954198302 6240.1896052161 -5651.26225677615 38.9007220781203
704.0 79.0 -4.3 708.418661527207 6.40271244698655 10277.3091260141 -4875.19499440251 -521.59401444264 6804.386385061 -4902.95271967075 25.321493298198
704.0 79.0 -4.1 708.418661527207 6.40271244698655 8934.14116581403 -4629.76936185533 -485.497345208208 6778.96100943266 -4655.03253952741 33.8241351637131
704.0 79.0 -3.9 708.418661527207 6.40271244698655 7569.84659224362 -4491.7443963169 -472.133232498099 6590.07795902842 -4516.37817315117 31.7129020598375
704.0 79.0 -3.7 708.418661527207 6.40271244698655 6316.40492323255 -4432.06936108263 -470.927402302124 6293.15006520932 -4456.94088320226 26.2564911329876
704.0 79.0 -3.5 708.418661527207 6.40271244698655 5101.16672448269 -4405.57208935539 -480.16651372927 5983.68229002605 -4431.63919302009 14.1201381851025
704.0 79.0 -3.3 708.418661527207 6.40271244698655 3871.28298997915 -4372.16485498261 -494.832996185156 5678.13214475869 -4400.07587869941 -4.18030457348399
704.0 79.0 -3.1 708.418661527207 6.40271244698655 2759.73009743837 -4356.56609564709 -478.569933572347 5342.21203245138 -4382.76082309066 10.2418085734036
704.0 79.0 -2.9 708.418661527207 6.40271244698655 1754.4473125927 -4361.20187409147 -470.980595705877 4996.76967770711 -4386.52135408465 18.3007723827317
704.0 79.0 -2.7 708.418661527207 6.40271244698655 746.366174349308 -4369.11185368697 -468.519667773966 4651.63131709373 -4394.10756351203 21.6284397355766
704.0 79.0 -2.5 708.418661527207 6.40271244698655 -93.9840828778011 -4403.21153934105 -473.087552133379 4289.38609940864 -4428.50394927682 20.8917067121561
704.0 79.0 -2.3 708.418661527207 6.40271244698655 -942.075023318186 -4427.15923841112 -480.045722602025 3929.01246481988 -4453.07822513627 16.6474879377524
704.0 79.0 -2.1 708.418661527207 6.40271244698655 -1671.11489778352 -4416.30054251603 -487.811856280533 3574.59858601729 -4443.15330681977 7.71887632869893
704.0 79.0 -1.9 708.418661527207 6.40271244698655 -2347.3356449321 -4418.13158644318 -489.341582185758 3221.11387702671 -4445.14351874923 6.40288252776787
704.0 79.0 -1.7 708.418661527207 6.40271244698655 -2956.08727902968 -4412.92102970729 -492.594953459657 2872.69453350221 -4440.32826500637 2.58874336726751
704.0 79.0 -1.5 708.418661527207 6.40271244698655 -3484.92699894488 -4391.45975865029 -495.133923222805 2550.79497099603 -4419.28399129865 -2.32766456480305
704.0 79.0 -1.3 708.418661527207 6.40271244698655 -3995.76008272389 -4369.07134452875 -494.928845720746 2225.60753941934 -4397.0123523356 -4.62053210537559
704.0 79.0 -1.1 708.418661527207 6.40271244698655 -4390.95592563161 -4346.25186824768 -485.105379376266 1897.15702517148 -4373.23973586219 2.59692553370852
704.0 79.0 -0.9 708.418661527207 6.40271244698655 -4775.86659991556 -4324.32542604772 -475.910076413958 1571.31462578014 -4350.42463354974 9.28972544025928
704.0 79.0 -0.7 708.418661527207 6.40271244698655 -5038.17034602149 -4275.64135931754 -470.271497160523 1253.78530547078 -4301.41543514125 9.46408352742147
704.0 79.0 -0.5 708.418661527207 6.40271244698655 -5275.32978702127 -4247.2185692097 -470.801973895519 917.282120375344 -4273.22908481161 5.76732032483826
704.0 79.0 -0.3 708.418661527207 6.40271244698655 -5411.52340804333 -4234.59654610013 -468.498553982476 619.727166684618 -4260.42892166696 6.64881572726117
704.0 79.0 -0.0999999999999996 708.418661527207 6.40271244698655 -5507.01332955461 -4226.18789945407 -465.492206924791 336.950779941894 -4251.737467036 8.6987126631223
704.0 79.0 0.100000000000001 708.418661527207 6.40271244698655 -5543.6465034077 -4202.74260120695 -465.410906448998 44.406667057066 -4228.42933922925 6.164980670948
704.0 79.0 0.300000000000001 708.418661527207 6.40271244698655 -5532.54805293275 -4186.77726226491 -472.335677496535 -280.859950885937 -4213.33580445508 -2.49698848251592
704.0 79.0 0.5 708.418661527207 6.40271244698655 -5442.0329216117 -4198.94855389341 -476.272960381487 -582.108524375562 -4225.87024932025 -5.05241962891155
704.0 79.0 0.7 708.418661527207 6.40271244698655 -5300.10490781745 -4206.00773945529 -475.700176860949 -875.810967602752 -4232.82152969283 -3.69599678175548
704.0 79.0 0.9 708.418661527207 6.40271244698655 -5113.50691552537 -4199.63802138709 -473.99205963538 -1186.42808575035 -4226.30105947981 -2.70885903766363
704.0 79.0 1.1 708.418661527207 6.40271244698655 -4807.77258585009 -4202.86121961156 -473.128829687244 -1521.66942677044 -4229.40788952771 -1.49157526176488
704.0 79.0 1.3 708.418661527207 6.40271244698655 -4480.01688045624 -4205.47812386228 -467.090944693492 -1854.11201452331 -4231.33515055589 4.80047591288788
704.0 79.0 1.5 708.418661527207 6.40271244698655 -4058.13808878061 -4199.04269130246 -463.629600459412 -2168.05074977229 -4224.55386291132 7.52257694338563
704.0 79.0 1.7 708.418661527207 6.40271244698655 -3603.92909816988 -4204.03237520904 -469.17781947133 -2474.40329118705 -4230.13113943824 2.56539364699938
704.0 79.0 1.9 708.418661527207 6.40271244698655 -3092.20386143722 -4201.07819909752 -463.250193212981 -2793.54844198287 -4226.53436454325 8.12660933346182
704.0 79.0 2.1 708.418661527207 6.40271244698655 -2513.8775821531 -4179.85533829085 -464.876669237807 -3135.58824167707 -4205.62525640372 4.14359014093862
704.0 79.0 2.3 708.418661527207 6.40271244698655 -1808.32498306525 -4157.74475378251 -472.806511506266 -3514.88125173472 -4184.53688766643 -6.20247431387652
704.0 79.0 2.5 708.418661527207 6.40271244698655 -1078.27298278033 -4132.34737735226 -466.080835699854 -3848.91955177485 -4158.54790347464 -2.35096223789254
704.0 79.0 2.7 708.418661527207 6.40271244698655 -227.082249857434 -4058.79753790565 -455.694012293242 -4165.65050443152 -4084.29852401005 -0.23090746867572
704.0 79.0 2.9 708.418661527207 6.40271244698655 583.331744570708 -4007.74096599796 -446.969469017076 -4497.41252668 -4032.58748429399 2.74559414008695
704.0 79.0 3.1 708.418661527207 6.40271244698655 1558.10814735403 -3924.4649189745 -432.847663596989 -4812.776974813 -3948.25605292837 7.49270694713567
704.0 79.0 3.3 708.418661527207 6.40271244698655 2528.56859878769 -3858.08976138893 -422.614450300697 -5124.61928502515 -3881.15373423992 10.2602013932915
704.0 79.0 3.5 708.418661527207 6.40271244698655 3570.69418314243 -3781.093002519 -420.05178378814 -5429.98891873898 -3804.35145353541 4.2205147528225
704.0 79.0 3.7 708.418661527207 6.40271244698655 4679.88412253705 -3634.08226046782 -420.810205178111 -5723.22388797163 -3658.34224636512 -12.9272227932138
704.0 79.0 3.9 708.418661527207 6.40271244698655 5842.73938929993 -3578.11698097097 -421.611956943384 -5988.72000111883 -3602.81545054141 -19.9649966319986
704.0 79.0 4.1 708.418661527207 6.40271244698655 7051.61716463937 -3588.66151633413 -421.84488883456 -6157.11352452904 -3613.32019147952 -19.0205914678838
704.0 79.0 4.3 708.418661527207 6.40271244698655 8298.04726423166 -3532.9356104199 -409.275719891455 -6150.24049950913 -3556.54020487752 -12.744149851938
704.0 79.0 4.5 708.418661527207 6.40271244698655 9562.07198940867 -3669.98290902002 -400.026942024978 -6237.57394248286 -3691.70130376305 11.7299036265974
704.0 79.5 -4.5 708.474593757603 6.44289625197794 11850.7792491256 -5796.72436866121 -640.811088059292 6453.37568391266 -5832.02061646811 13.7034996037511
704.0 79.5 -4.3 708.474593757603 6.44289625197794 10462.992278523 -4761.62647941305 -558.014668117141 6741.94028078069 -4794.16938525278 -20.1743596271003
704.0 79.5 -4.1 708.474593757603 6.44289625197794 9129.06292762417 -4534.21748882838 -528.381506063735 6713.88138001366 -4564.8714440334 -16.2465810467034
704.0 79.5 -3.9 708.474593757603 6.44289625197794 7814.28115369649 -4419.8227641149 -499.399574242048 6672.47202044182 -4447.94706804589 -0.284259338361916
704.0 79.5 -3.7 708.474593757603 6.44289625197794 6521.68207781354 -4335.73879456937 -489.254290712278 6325.94985981999 -4363.25572536494 0.361641065294781
704.0 79.5 -3.5 708.474593757603 6.44289625197794 5264.85434044463 -4284.16967436507 -480.753523198091 6030.12957292913 -4311.0584102219 3.02199796496853
704.0 79.5 -3.3 708.474593757603 6.44289625197794 4105.9030993337 -4258.29330522382 -478.114214994659 5655.40153534049 -4285.04930694569 2.74097395469685
704.0 79.5 -3.1 708.474593757603 6.44289625197794 2994.49495279798 -4252.9832681905 -476.259292545476 5333.72890912981 -4279.56466086183 3.98832631971058
704.0 79.5 -2.9 708.474593757603 6.44289625197794 2016.14917300114 -4269.97933168177 -481.427655347528 4985.85445126167 -4297.03333743776 0.759783778816665
704.0 79.5 -2.7 708.474593757603 6.44289625197794 994.650744551737 -4295.24799577221 -486.979770930351 4632.2271886938 -4322.7654284247 -1.92179519643014
704.0 79.5 -2.5 708.474593757603 6.44289625197794 109.930130179981 -4308.47317763149 -495.991817649126 4276.50116064446 -4336.9183505357 -9.39288728476028
704.0 79.5 -2.3 708.474593757603 6.44289625197794 -688.566630391613 -4320.41187726003 -502.091554326503 3915.85258242658 -4349.46611679673 -14.1144228625741
704.0 79.5 -2.1 708.474593757603 6.44289625197794 -1431.48418876532 -4316.31805366961 -496.262906011568 3572.92092535002 -4344.74409941153 -8.78196708848884
704.0 79.5 -1.9 708.474593757603 6.44289625197794 -2146.69943081838 -4317.98117546036 -488.625287066096 3226.83115205806 -4345.53967774205 -1.00596217805505
704.0 79.5 -1.7 708.474593757603 6.44289625197794 -2735.09971379835 -4313.5674727776 -479.354336038008 2882.4417056036 -4340.11353073655 7.71116079983364
704.0 79.5 -1.5 708.474593757603 6.44289625197794 -3302.14241679691 -4296.60653734131 -464.287934333352 2540.23390089169 -4321.56907254648 20.7791698921408
704.0 79.5 -1.3 708.474593757603 6.44289625197794 -3797.1819128355 -4269.2864872218 -451.125964300365 2201.02355837719 -4292.94462774571 30.7923488843406
704.0 79.5 -1.1 708.474593757603 6.44289625197794 -4156.91079467354 -4251.05000200304 -458.116161705737 1889.58830983881 -4275.60771120911 21.7999310836084
704.0 79.5 -0.9 708.474593757603 6.44289625197794 -4517.59591392289 -4228.75081565265 -469.852724774791 1576.26523594537 -4254.76635633657 7.63523724152598
704.0 79.5 -0.7 708.474593757603 6.44289625197794 -4842.174773387 -4188.51937946544 -480.232847366871 1256.58789728973 -4215.95379824061 -7.19381319200608
704.0 79.5 -0.5 708.474593757603 6.44289625197794 -5033.46187285789 -4177.19819614369 -476.868005580032 944.885487184561 -4204.32653869856 -5.12060611189684
704.0 79.5 -0.3 708.474593757603 6.44289625197794 -5170.05779518238 -4168.401362473 -472.704566549932 637.846971384569 -4195.11807255942 -1.97058094510401
704.0 79.5 -0.0999999999999996 708.474593757603 6.44289625197794 -5274.46707801337 -4155.5225233295 -468.925804245184 348.478616685793 -4181.89654783181 0.339143306200448
704.0 79.5 0.100000000000001 708.474593757603 6.44289625197794 -5315.12039334334 -4112.56631981721 -469.399597552563 31.8229948803556 -4139.26481343957 -4.95189846248292
704.0 79.5 0.300000000000001 708.474593757603 6.44289625197794 -5299.89034730134 -4102.2815342208 -463.085839446352 -290.168269394369 -4128.3364994287 0.167897340808354
704.0 79.5 0.5 708.474593757603 6.44289625197794 -5206.44215779579 -4102.76309076297 -461.831458721051 -600.273782411789 -4128.67425683049 1.46839249452651
704.0 79.5 0.7 708.474593757603 6.44289625197794 -5092.71103532402 -4121.51702962116 -455.219769692571 -880.091360654859 -4146.56783239424 10.1427574885921
704.0 79.5 0.9 708.474593757603 6.44289625197794 -4857.2845141444 -4129.45220476676 -455.567456359015 -1190.02034335157 -4154.49190538423 10.6876958876548
704.0 79.5 1.1 708.474593757603 6.44289625197794 -4578.66332889698 -4130.8020710157 -463.122926419993 -1511.59969966267 -4156.68106745549 3.33141719811728
704.0 79.5 1.3 708.474593757603 6.44289625197794 -4233.41157784606 -4142.89014484715 -470.378698830749 -1848.42437379549 -4169.50698664025 -2.52209109154112
704.0 79.5 1.5 708.474593757603 6.44289625197794 -3841.26396705965 -4148.03882966903 -470.358850408751 -2181.74378624305 -4174.62092607714 -1.92461909161893
704.0 79.5 1.7 708.474593757603 6.44289625197794 -3415.50839896885 -4116.40380114247 -465.122589104504 -2462.9179303092 -4142.59812235732 -0.27128783507237
704.0 79.5 1.9 708.474593757603 6.44289625197794 -2855.61801629066 -4083.71907678071 -465.858052961251 -2802.9681345763 -4110.20235717916 -4.66975486461288
704.0 79.5 2.1 708.474593757603 6.44289625197794 -2261.44511415231 -4053.29655666008 -466.863842695447 -3160.74031688041 -4080.08484263584 -9.08299190940386
704.0 79.5 2.3 708.474593757603 6.44289625197794 -1573.71655836851 -4033.98281562474 -458.697651536919 -3496.31635813041 -4059.9767314749 -3.13562809365107
704.0 79.5 2.5 708.474593757603 6.44289625197794 -862.070718597277 -3998.47878284932 -453.823427238072 -3832.96031175578 -4024.14998464545 -2.27619953247493
704.0 79.5 2.7 708.474593757603 6.44289625197794 -68.6209913463906 -3942.4578176009 -447.670225442223 -4159.05590729672 -3967.79236867804 -2.44813607620595
704.0 79.5 2.9 708.474593757603 6.44289625197794 785.903214442073 -3894.38604908877 -441.89173666406 -4474.68959441017 -3919.37579143923 -2.10041647513184
704.0 79.5 3.1 708.474593757603 6.44289625197794 1737.85422060739 -3817.5387376302 -427.160873382933 -4781.51151347851 -3841.36084018383 3.91414851633279
704.0 79.5 3.3 708.474593757603 6.44289625197794 2732.58321424464 -3753.68974019834 -414.845756137141 -5100.59476450846 -3776.53318592813 8.98680359369273
704.0 79.5 3.5 708.474593757603 6.44289625197794 3740.85135343124 -3711.74405078968 -411.998437478099 -5414.99398326416 -3734.53291176265 7.10929100009641
704.0 79.5 3.7 708.474593757603 6.44289625197794 4874.11007874895 -3597.60722163687 -395.999408557396 -5722.33034469085 -3619.32165190667 10.1996466202102
704.0 79.5 3.9 708.474593757603 6.44289625197794 6066.37494715208 -3524.12469190807 -383.523041333914 -5953.38258369352 -3544.90321462198 14.3515265010259
704.0 79.5 4.1 708.474593757603 6.44289625197794 7270.96427225594 -3504.12789768719 -381.368364534185 -6149.92129497497 -3524.79093386749 14.2486961748682
704.0 79.5 4.3 708.474593757603 6.44289625197794 8502.72381698102 -3503.76542225223 -389.544303928096 -6214.86018787448 -3525.34819375949 6.0837200679453
704.0 79.5 4.5 708.474593757603 6.44289625197794 9755.76072920269 -3761.43658332182 -446.14132905692 -6216.45500382778 -3787.74286892315 -21.2418164526813
704.0 80.0 -4.5 708.530874415505 6.48307369289724 12168.8846335495 -5902.50483797239 -777.172691621671 6748.99097517967 -5952.51014959864 -105.752890339009
704.0 80.0 -4.3 708.530874415505 6.48307369289724 10794.8089735074 -5046.04305847312 -580.670348405467 6922.84403289281 -5079.3382066891 -7.20996188601291
704.0 80.0 -4.1 708.530874415505 6.48307369289724 9396.04568832543 -4441.82911597997 -488.636754028936 6870.84819754973 -4468.59657398005 16.013493344784
704.0 80.0 -3.9 708.530874415505 6.48307369289724 8074.42795542091 -4314.89447118752 -481.293210088649 6635.09987115347 -4341.64448664397 8.97792604710451
704.0 80.0 -3.7 708.530874415505 6.48307369289724 6746.29068138011 -4224.92827469305 -483.49627396004 6343.76805405323 -4252.50234830808 -3.36910497286792
704.0 80.0 -3.5 708.530874415505 6.48307369289724 5544.59418318481 -4209.08292563813 -487.400675978768 6007.10203559926 -4237.19917103706 -9.03763275423295
704.0 80.0 -3.3 708.530874415505 6.48307369289724 4333.56125520096 -4196.5819678982 -485.781321409708 5686.70283105564 -4224.59531291754 -8.84011278371745
704.0 80.0 -3.1 708.530874415505 6.48307369289724 3268.5851928291 -4204.64172467061 -485.679658456491 5341.23061896348 -4232.5920508666 -7.82907531629636
704.0 80.0 -2.9 708.530874415505 6.48307369289724 2193.74701323702 -4211.41889575864 -476.044507639836 4995.13012888832 -4238.23798179931 2.50966943919457
704.0 80.0 -2.7 708.530874415505 6.48307369289724 1283.48588302181 -4215.96455548744 -485.541854949907 4636.8107574603 -4243.82691571436 -6.41369573272093
704.0 80.0 -2.5 708.530874415505 6.48307369289724 390.822666889527 -4221.79282155133 -495.99153673925 4277.22181989054 -4250.79778181275 -16.1384867663787
704.0 80.0 -2.3 708.530874415505 6.48307369289724 -422.141274835536 -4214.0168643238 -473.942731410434 3936.15611068142 -4240.58202611903 4.89134116536159
704.0 80.0 -2.1 708.530874415505 6.48307369289724 -1213.94197258085 -4202.41308967236 -454.995370043821 3595.7401219584 -4226.9131139888 22.4073604075983
704.0 80.0 -1.9 708.530874415505 6.48307369289724 -1883.68186976845 -4193.29542274258 -459.698922372384 3258.07299946695 -4218.38482884206 16.7044131690267
704.0 80.0 -1.7 708.530874415505 6.48307369289724 -2538.32765365351 -4198.41341646083 -467.982601653473 2919.52914526204 -4224.40540193798 9.05157698048389
704.0 80.0 -1.5 708.530874415505 6.48307369289724 -3049.77948576614 -4173.83020831815 -463.728928180564 2560.31263692986 -4199.49911620296 10.5023669328083
704.0 80.0 -1.3 708.530874415505 6.48307369289724 -3572.89949172436 -4148.29188524947 -467.552566201031 2198.0635959714 -4174.55582997949 3.81965601239929
704.0 80.0 -1.1 708.530874415505 6.48307369289724 -3933.60776758837 -4137.64797284618 -450.984363328502 1875.30474939229 -4162.10927206626 19.0801086199395
704.0 80.0 -0.9 708.530874415505 6.48307369289724 -4289.90492117776 -4127.40739647592 -433.793402767902 1553.62049805322 -4149.99315557862 35.0048770844752
704.0 80.0 -0.7 708.530874415505 6.48307369289724 -4536.56539280772 -4099.87423431785 -434.515672495266 1249.63726997113 -4122.71761222698 31.1784653378506
704.0 80.0 -0.5 708.530874415505 6.48307369289724 -4755.76056584404 -4066.74172751968 -442.860277125399 949.694895169225 -4090.73916607361 19.1462413215012
704.0 80.0 -0.3 708.530874415505 6.48307369289724 -4932.68397091133 -4035.0556141771 -447.135176557933 651.732358047124 -4059.7383549139 11.3210096087905
704.0 80.0 -0.0999999999999996 708.530874415505 6.48307369289724 -5036.84115116858 -4030.94734081983 -461.158012425206 313.784490033958 -4057.23966694128 -3.07601765915454
704.0 80.0 0.100000000000001 708.530874415505 6.48307369289724 -5065.45836629892 -4029.77383382611 -466.789429360408 -2.91347395703209 -4056.70950575519 -8.80392342646296
704.0 80.0 0.300000000000001 708.530874415505 6.48307369289724 -5049.59291838949 -4024.35286343132 -464.378430031127 -291.933925334787 -4051.05097590272 -7.02042189976745
704.0 80.0 0.5 708.530874415505 6.48307369289724 -5011.8830159715 -4021.69319073511 -463.768651696768 -581.93611407647 -4048.33946125424 -6.71484575691999
704.0 80.0 0.7 708.530874415505 6.48307369289724 -4810.94787239481 -4040.2050006381 -476.136566550914 -880.106302546798 -4068.12935025746 -16.9135082655095
704.0 80.0 0.9 708.530874415505 6.48307369289724 -4610.01272881811 -4058.71681054109 -488.504481405059 -1178.27649101713 -4087.91923926067 -27.112170774099
704.0 80.0 1.1 708.530874415505 6.48307369289724 -4323.71633502658 -4058.30044720095 -478.966981311164 -1501.76220001999 -4086.42866229769 -17.6826720180949
704.0 80.0 1.3 708.530874415505 6.48307369289724 -4019.98184219037 -4053.5959010946 -464.993789626126 -1830.88151389411 -4080.17649185088 -4.33002416691503
704.0 80.0 1.5 708.530874415505 6.48307369289724 -3615.48690815872 -4042.73742136098 -453.499044765922 -2160.99650311565 -4068.08958127221 5.86518716929203
704.0 80.0 1.7 708.530874415505 6.48307369289724 -3140.23209547531 -4026.66795769654 -447.737840066526 -2484.03081756556 -4051.47238190821 9.77515230314124
704.0 80.0 1.9 708.530874415505 6.48307369289724 -2614.46086537104 -3995.51003185863 -451.096113051229 -2806.77088102986 -4020.89288462238 2.9203229320559
704.0 80.0 2.1 708.530874415505 6.48307369289724 -2006.91996339086 -3945.77888612821 -455.96222166572 -3150.74203057129 -3972.02918770357 -7.52979630818724
704.0 80.0 2.3 708.530874415505 6.48307369289724 -1352.45168349676 -3907.9630563949 -457.44699287943 -3486.3619399913 -3934.62282562088 -13.2748463266128
704.0 80.0 2.5 708.530874415505 6.48307369289724 -607.101332527896 -3888.82512584016 -453.219282790108 -3813.24066774647 -3915.12992782856 -11.2350291348843
704.0 80.0 2.7 708.530874415505 6.48307369289724 171.940951823121 -3857.71929393823 -449.824180443368 -4139.61658697505 -3883.83966984935 -11.3737873790193
704.0 80.0 2.9 708.530874415505 6.48307369289724 1049.28461008964 -3791.34374797795 -446.499929874946 -4459.97758934513 -3817.51323849901 -15.5652367341417
704.0 80.0 3.1 708.530874415505 6.48307369289724 1948.47003301468 -3732.00246708145 -445.002127595838 -4774.68735905972 -3758.38231358621 -20.7772180331562
704.0 80.0 3.3 708.530874415505 6.48307369289724 2953.8890596483 -3667.50292203191 -453.526472409791 -5082.87989371713 -3695.25770780717 -36.5296753444816
704.0 80.0 3.5 708.530874415505 6.48307369289724 3981.93517276668 -3605.03551652862 -456.598831704008 -5385.9225199081 -3633.53666457549 -46.6355629521297
704.0 80.0 3.7 708.530874415505 6.48307369289724 5096.42386981865 -3559.45571256175 -428.682954817582 -5661.50618829746 -3585.096358891 -24.0446024327329
704.0 80.0 3.9 708.530874415505 6.48307369289724 6224.975460529 -3452.28296762041 -382.201667548856 -5959.17808090627 -3473.36076870163 10.0386076486869
704.0 80.0 4.1 708.530874415505 6.48307369289724 7463.05154370953 -3379.60783037377 -370.811179323792 -6053.02964027274 -3399.86427396864 13.1505295286377
704.0 80.0 4.3 708.530874415505 6.48307369289724 8693.9229890152 -3395.44386720078 -375.331642678329 -6279.21096076858 -3416.10944748217 10.44701536348
704.0 80.0 4.5 708.530874415505 6.48307369289724 9945.46629406607 -3613.89300436747 -394.816094932152 -6275.19532840086 -3635.36164150097 15.7521851484164
704.0 80.5 -4.5 708.587503417891 6.52324473175338 12490.0781945607 -5871.11917526483 -660.548376538541 6975.93708893791 -5908.15110837317 10.7242034174066
704.0 80.5 -4.3 708.587503417891 6.52324473175338 11105.7854569548 -5185.75220312276 -591.593728541158 7029.60319879835 -5219.38762440304 1.37042701673847
704.0 80.5 -4.1 708.587503417891 6.52324473175338 9699.69815415604 -4636.89498997134 -555.158916406019 6869.15657657502 -4669.94457247573 -24.7842791079922
704.0 80.5 -3.9 708.587503417891 6.52324473175338 8327.12943082686 -4244.04304983083 -516.945627084189 6664.71384088386 -4275.29474546007 -31.4488413193834
704.0 80.5 -3.7 708.587503417891 6.52324473175338 7033.38680018976 -4170.56758421689 -498.65171034515 6339.95444319419 -4200.21666712381 -21.6206375071946
704.0 80.5 -3.5 708.587503417891 6.52324473175338 5747.99546178035 -4091.59373079774 -478.530403268722 6044.7877949893 -4119.4681953391 -10.6015256206575
704.0 80.5 -3.3 708.587503417891 6.52324473175338 4608.3207382888 -4090.54785991576 -475.209479947733 5681.91659839844 -4118.05181779446 -7.42091997759163
704.0 80.5 -3.1 708.587503417891 6.52324473175338 3518.64865561198 -4106.24697293484 -475.460289460851 5321.27812621722 -4133.67778590402 -5.88658766780988
704.0 80.5 -2.9 708.587503417891 6.52324473175338 2463.31544349577 -4120.67178462992 -475.305778233429 4964.96170138518 -4147.99165572335 -4.09432737612737
704.0 80.5 -2.7 708.587503417891 6.52324473175338 1541.6621985308 -4113.84694023833 -477.689821840712 4629.99840354712 -4141.48183877196 -7.23828159815943
704.0 80.5 -2.5 708.587503417891 6.52324473175338 644.064965663649 -4100.11836488696 -480.506362824358 4300.03694394971 -4128.16212109044 -11.5962404294639
704.0 80.5 -2.3 708.587503417891 6.52324473175338 -201.575191651836 -4091.34286310145 -484.31346546357 3967.51410748371 -4119.87594406048 -16.3756475392474
704.0 80.5 -2.1 708.587503417891 6.52324473175338 -955.890440742544 -4110.54334487637 -475.411484318195 3599.47972020918 -4137.94079790788 -5.35000360460169
704.0 80.5 -1.9 708.587503417891 6.52324473175338 -1712.88569311128 -4139.70749725858 -460.13867176752 3212.15738835812 -4165.18104949804 13.1371616915064
704.0 80.5 -1.7 708.587503417891 6.52324473175338 -2270.09452454309 -4086.05138342319 -470.210267189341 2883.50139896875 -4113.01651014282 -2.96490091286564
704.0 80.5 -1.5 708.587503417891 6.52324473175338 -2840.94572022692 -4068.3708642117 -471.403055433078 2567.13622486432 -4095.58596555702 -6.15858512152054
704.0 80.5 -1.3 708.587503417891 6.52324473175338 -3281.49518967039 -4060.57254845031 -464.093602017651 2242.43642044454 -4087.00773736834 0.2176080287613
704.0 80.5 -1.1 708.587503417891 6.52324473175338 -3713.83278444881 -4042.99870774291 -461.550078700941 1903.45372408889 -4069.25871212539 0.748165279919758
704.0 80.5 -0.9 708.587503417891 6.52324473175338 -4065.16236289112 -4017.72263572925 -459.399552767921 1571.59491154821 -4043.90196797092 0.0132475206570381
704.0 80.5 -0.7 708.587503417891 6.52324473175338 -4329.57585783847 -3985.87604925634 -456.865161891041 1248.63749325345 -4011.97363839498 -1.08674229003937
704.0 80.5 -0.5 708.587503417891 6.52324473175338 -4592.19074594809 -3954.8199358982 -453.141901818142 919.718639662308 -3980.69560126747 -0.915757104149453
704.0 80.5 -0.3 708.587503417891 6.52324473175338 -4709.01048351088 -3944.83972053192 -444.085924393317 638.849842027825 -3969.75118330475 6.9477752658318
704.0 80.5 -0.0999999999999996 708.587503417891 6.52324473175338 -4823.29095301437 -3943.98797331867 -443.813265019361 331.386008441921 -3968.87397461177 7.1219055574369
704.0 80.5 0.100000000000001 708.587503417891 6.52324473175338 -4856.58459390347 -3951.23518893577 -447.103494341121 18.410397997513 -3976.44806140974 4.67630698706488
704.0 80.5 0.300000000000001 708.587503417891 6.52324473175338 -4820.82733306006 -3961.9162904739 -456.612313798997 -293.664057880969 -3988.14027360547 -3.55751056741109
704.0 80.5 0.5 708.587503417891 6.52324473175338 -4737.29195165169 -3954.4540684438 -469.006838432021 -583.662355628532 -3982.13445914261 -16.719546547563
704.0 80.5 0.7 708.587503417891 6.52324473175338 -4576.92824191928 -3943.47795740848 -477.524552817574 -866.080341590727 -3972.19707508367 -26.4290712464686
704.0 80.5 0.9 708.587503417891 6.52324473175338 -4405.02540634244 -3933.97963223081 -464.583389567949 -1151.47667473865 -3961.29004591734 -14.6507605781658
704.0 80.5 1.1 708.587503417891 6.52324473175338 -4147.11497651163 -3944.8890551703 -434.039324797917 -1495.2040898901 -3968.65884159921 16.9349363707291
704.0 80.5 1.3 708.587503417891 6.52324473175338 -3812.06792834449 -3937.26691632153 -441.086134310172 -1844.63671390072 -3961.88661154907 9.06782603211219
704.0 80.5 1.5 708.587503417891 6.52324473175338 -3411.31433099776 -3927.15307572273 -456.921410163612 -2168.54413324216 -3953.63723649355 -7.81392577881509
704.0 80.5 1.7 708.587503417891 6.52324473175338 -2928.91941790716 -3911.40426710236 -460.528979142653 -2485.85327074061 -3938.40023059964 -13.1873025838238
704.0 80.5 1.9 708.587503417891 6.52324473175338 -2402.99386060346 -3894.9590218694 -458.234771237921 -2802.99287483315 -3921.80081793204 -12.7762310897973
704.0 80.5 2.1 708.587503417891 6.52324473175338 -1794.91235587742 -3864.44212925062 -450.461573952911 -3124.45282761655 -3890.59841219046 -8.52026973246479
704.0 80.5 2.3 708.587503417891 6.52324473175338 -1111.04670120074 -3842.05069960526 -445.615214211192 -3458.9752511937 -3867.8013711029 -6.24909339368433
704.0 80.5 2.5 708.587503417891 6.52324473175338 -389.183902923677 -3808.55698779806 -442.659176206314 -3788.9245245845 -3834.18867816551 -7.11728968853475
704.0 80.5 2.7 708.587503417891 6.52324473175338 414.949994197794 -3774.20782658544 -435.806814048639 -4103.50323878522 -3799.28342718652 -4.21157166294811
704.0 80.5 2.9 708.587503417891 6.52324473175338 1199.90635036285 -3733.52342970111 -421.433555172746 -4434.90763504895 -3757.22953461526 5.44662900588931
704.0 80.5 3.1 708.587503417891 6.52324473175338 2155.7251044574 -3674.73908125893 -414.039675682641 -4747.08488031774 -3697.98577375331 6.11436744208249
704.0 80.5 3.3 708.587503417891 6.52324473175338 3128.39642422744 -3605.45498254472 -384.105722919808 -5088.07659482681 -3625.74954541833 27.9834135708868
704.0 80.5 3.5 708.587503417891 6.52324473175338 4209.02518638748 -3531.69258466435 -379.797644533083 -5369.58599905079 -3551.97527171782 23.883728167033
704.0 80.5 3.7 708.587503417891 6.52324473175338 5302.95841170651 -3450.25846006717 -379.666993505526 -5638.0248207633 -3471.05352126703 14.7621042666738
704.0 80.5 3.9 708.587503417891 6.52324473175338 6438.99918963287 -3412.07527062808 -379.716316113368 -5903.13335341198 -3433.1231389705 10.3752503484587
704.0 80.5 4.1 708.587503417891 6.52324473175338 7647.2882418833 -3360.47865779584 -374.937591294374 -6134.35138196099 -3381.31767725298 9.26133702566289
704.0 80.5 4.3 708.587503417891 6.52324473175338 8877.12945646984 -3390.04597156322 -372.563135682143 -6240.69218670139 -3410.42381462622 14.9794529813354
704.0 80.5 4.5 708.587503417891 6.52324473175338 10151.9834050719 -3544.21550154303 -396.872594063511 -6487.08364950478 -3566.35693505599 8.34200663290024
704.0 81.0 -4.5 708.644480681251 6.56340933059258 12922.6836924635 -5975.91076033775 -668.428609118416 7463.58535084302 -6013.14764847939 19.0152200932102
704.0 81.0 -4.3 708.644480681251 6.56340933059258 11364.3617186451 -4837.6300725737 -583.460432377437 7328.82418939665 -4872.61519739063 -26.6820797038721
704.0 81.0 -4.1 708.644480681251 6.56340933059258 9938.63310851614 -4494.23818600194 -536.170156723943 6949.31648713724 -4526.06850554542 -18.9523768739263
704.0 81.0 -3.9 708.644480681251 6.56340933059258 8600.57039266174 -4262.76694251082 -496.662326983883 6697.89319769846 -4291.59847980422 -6.16127828876923
704.0 81.0 -3.7 708.644480681251 6.56340933059258 7261.26348846012 -4060.29100914871 -471.150636911414 6386.94296767351 -4087.53352491489 -3.96034502645386
704.0 81.0 -3.5 708.644480681251 6.56340933059258 6041.04527399434 -4008.84115471099 -463.838140833942 6025.14720007494 -4035.58503634268 -2.5766342154383
704.0 81.0 -3.3 708.644480681251 6.56340933059258 4867.65197995701 -3991.97477616407 -451.258513027224 5701.31490405467 -4017.39131480691 7.99267312810936
704.0 81.0 -3.1 708.644480681251 6.56340933059258 3687.44263036697 -3966.92860277871 -442.842038154604 5376.40879787817 -3991.54726884698 13.4911400919166
704.0 81.0 -2.9 708.644480681251 6.56340933059258 2712.45587803666 -3982.14849880315 -447.965331922571 5006.90093145832 -4007.25301961457 10.1411002632189
704.0 81.0 -2.7 708.644480681251 6.56340933059258 1741.94735912769 -4001.61509865947 -454.797526999887 4641.79606377303 -4027.37297325679 5.57876917307851
704.0 81.0 -2.5 708.644480681251 6.56340933059258 825.21044627876 -4023.87418055741 -460.998939624318 4272.5240886821 -4050.19500675824 1.96227469138484
704.0 81.0 -2.3 708.644480681251 6.56340933059258 -23.8154671944362 -4039.68108799982 -467.268453562149 3908.42210905304 -4066.6149377471 -2.45937593148503
704.0 81.0 -2.1 708.644480681251 6.56340933059258 -749.514303061539 -4032.29913230822 -471.828463935771 3585.23203907522 -4059.8025852936 -7.83327753922582
704.0 81.0 -1.9 708.644480681251 6.56340933059258 -1428.43251497534 -4015.19847342283 -475.711646107514 3280.21649895326 -4043.25786305414 -13.6456612251381
704.0 81.0 -1.7 708.644480681251 6.56340933059258 -2033.09104465799 -4017.60473230183 -464.772678026785 2931.91694017873 -4044.39799729394 -2.50334556010776
704.0 81.0 -1.5 708.644480681251 6.56340933059258 -2621.87516862804 -4018.45432966098 -452.071316991713 2575.01773691124 -4043.79022609874 10.211881610108
704.0 81.0 -1.3 708.644480681251 6.56340933059258 -3130.56244963652 -4000.26996034663 -457.214098482956 2219.10960011965 -4026.31287174948 3.02428300015213
704.0 81.0 -1.1 708.644480681251 6.56340933059258 -3511.69411679373 -3967.52526304976 -460.532633506308 1877.37047159377 -3994.16210196122 -4.01531058094831
704.0 81.0 -0.9 708.644480681251 6.56340933059258 -3839.51225592106 -3941.55955637075 -463.226810643577 1546.58341727104 -3968.67452723751 -9.65978119305587
704.0 81.0 -0.7 708.644480681251 6.56340933059258 -4102.73603521799 -3910.5814764196 -463.436913406915 1230.46398167847 -3937.92349402432 -13.4093860991411
704.0 81.0 -0.5 708.644480681251 6.56340933059258 -4337.73194777927 -3884.4575690802 -455.428992355455 939.018360921286 -3911.05547643416 -8.43998321555388
704.0 81.0 -0.3 708.644480681251 6.56340933059258 -4473.85344070105 -3880.44863975586 -454.685276525354 649.485498948724 -3906.98781302162 -8.15937329825164
704.0 81.0 -0.0999999999999996 708.644480681251 6.56340933059258 -4606.35419175703 -3878.62039699105 -452.045099199726 356.52341026119 -3904.86977314306 -5.74547292941273
704.0 81.0 0.100000000000001 708.644480681251 6.56340933059258 -4635.42283941247 -3887.43499604103 -443.351586329435 38.4718347893078 -3912.63290873315 3.89859510476373
704.0 81.0 0.300000000000001 708.644480681251 6.56340933059258 -4579.59457922556 -3890.17506143205 -445.795824765718 -283.748855971114 -3915.63439877025 1.78357325201398
704.0 81.0 0.5 708.644480681251 6.56340933059258 -4521.83570957694 -3885.02135096417 -445.23955161667 -597.139322748182 -3910.45088236026 1.74711738214852
704.0 81.0 0.7 708.644480681251 6.56340933059258 -4324.9962908151 -3882.31258373095 -450.191199354275 -901.061858367021 -3908.32585534531 -3.48169657771294
704.0 81.0 0.9 708.644480681251 6.56340933059258 -4127.39977523677 -3872.43552619413 -453.906287494431 -1206.85329379099 -3898.93817711183 -8.30141055878857
704.0 81.0 1.1 708.644480681251 6.56340933059258 -3929.80325965845 -3862.55846865732 -457.621375634586 -1512.64472921496 -3889.55049887836 -13.1211245398641
704.0 81.0 1.3 708.644480681251 6.56340933059258 -3560.6777470275 -3854.36493872697 -446.9886210801 -1835.24904315376 -3880.19531673751 -3.49460028408718
704.0 81.0 1.5 708.644480681251 6.56340933059258 -3118.62972621947 -3849.29507679117 -438.127314199954 -2148.25939866526 -3874.14581127043 4.7291302122267
704.0 81.0 1.7 708.644480681251 6.56340933059258 -2661.96171834893 -3847.58539939035 -436.084934819746 -2467.2861677646 -3872.21388961254 6.56270296926074
704.0 81.0 1.9 708.644480681251 6.56340933059258 -2201.70236553138 -3847.72055416224 -438.692731347034 -2792.71491183328 -3872.64623684232 3.98744659114946
704.0 81.0 2.1 708.644480681251 6.56340933059258 -1568.9828955011 -3806.02610538504 -435.244441948572 -3132.41223603871 -3830.83090604071 2.64734638529916
704.0 81.0 2.3 708.644480681251 6.56340933059258 -899.134503430316 -3745.35138315151 -432.843107069522 -3467.96751027672 -3770.27936891964 -1.9023436693889
704.0 81.0 2.5 708.644480681251 6.56340933059258 -206.264465711165 -3688.50312706934 -437.606374659915 -3803.31735395215 -3714.34815279146 -13.1323036045056
704.0 81.0 2.7 708.644480681251 6.56340933059258 589.03746621329 -3641.63997516611 -433.208218579154 -4122.82966692993 -3667.28942236805 -14.1195594745208
704.0 81.0 2.9 708.644480681251 6.56340933059258 1479.3971896831 -3603.14542320319 -420.717493702252 -4425.00492688308 -3627.61944106812 -6.1107316926596
704.0 81.0 3.1 708.644480681251 6.56340933059258 2362.6616650145 -3568.12295976519 -414.529131127667 -4729.15108585635 -3592.11916933143 -3.96609110705988
704.0 81.0 3.3 708.644480681251 6.56340933059258 3367.06417763743 -3519.58016593301 -398.536917617464 -5051.99097174457 -3542.06657297438 6.37273493407792
704.0 81.0 3.5 708.644480681251 6.56340933059258 4374.88314665645 -3462.46568519824 -384.527751042981 -5378.84153729763 -3483.72513653214 13.7617437694903
704.0 81.0 3.7 708.644480681251 6.56340933059258 5520.63813076736 -3415.41009686196 -381.961155154675 -5626.04991284395 -3436.6845832442 10.9329358065129
704.0 81.0 3.9 708.644480681251 6.56340933059258 6672.97491420393 -3364.47599787289 -380.894604397448 -5861.35367550158 -3385.96239845404 6.17058969780831
704.0 81.0 4.1 708.644480681251 6.56340933059258 7849.71912585696 -3339.32687641798 -379.258673323157 -6077.75675264285 -3360.79111382889 4.92118553862394
704.0 81.0 4.3 708.644480681251 6.56340933059258 9098.99749037945 -3444.96352153389 -402.749021148684 -6309.58728046605 -3468.42042360937 -6.34064861425044
704.0 81.0 4.5 708.644480681251 6.56340933059258 10329.8212148679 -3516.1657134535 -424.508531462877 -6505.77996784168 -3541.64312534687 -19.8189412928616
704.0 81.5 -4.5 708.701806121587 6.60356745149853 13169.9234056823 -5836.96555790056 -648.900762470222 7517.43036926732 -5872.8637756417 26.6495104523819
704.0 81.5 -4.3 708.701806121587 6.60356745149853 11637.0158712753 -4762.95532881892 -489.474223814611 7470.35639375541 -4787.64505948966 61.5082469900997
704.0 81.5 -4.1 708.701806121587 6.60356745149853 10199.429622838 -4300.59073988054 -457.940821855152 7188.30445074892 -4324.72166908978 39.6609779620265
704.0 81.5 -3.9 708.701806121587 6.60356745149853 8805.05941318178 -4071.32010018564 -468.583418781051 6803.40327452193 -4098.1959888826 2.72309358689374
